0 0.0 1.612
0 0.0834386001800126 0.0834386001800126
0 0.108 6.613092715395707e-18
0 0.04808326112068524 -0.04808326112068523
0 7.715274834628325e-18 -0.063
0 -0.049497474683058325 -0.049497474683058346
0 -0.108 -1.983927814618712e-17
0 -0.489317892581091 0.4893178925810907
0.5 0.0 1.617
0.5 0.5388153672641492 0.5388153672641492
0.5 0.123 7.531577814756222e-18
0.5 0.053033008588991064 -0.05303300858899106
0.5 7.59281015471359e-18 -0.062
0.5 -0.04525483399593904 -0.045254833995939055
0.5 -0.107 -1.965558112631502e-17
0.5 -0.07636753236814715 0.07636753236814711
1.0 0.0 1.612
1.0 0.08697413408594536 0.08697413408594536
1.0 0.108 6.613092715395707e-18
1.0 0.04737615433949869 -0.04737615433949868
1.0 7.59281015471359e-18 -0.062
1.0 -0.050911688245431415 -0.05091168824543143
1.0 -0.111 -2.039036920580343e-17
1.0 -0.489317892581091 0.4893178925810907
1.5 0.0 1.613
1.5 0.5381082604829627 0.5381082604829627
1.5 0.122 7.470345474798855e-18
1.5 0.05444722215136416 -0.054447222151364154
1.5 8.082668874372532e-18 -0.066
1.5 -0.045961940777125586 -0.0459619407771256
1.5 -0.106 -1.9471884106442913e-17
1.5 -0.07848885271170679 0.07848885271170676
2.0 0.0 1.611
2.0 0.09121677477306464 0.09121677477306464
2.0 0.109 6.674325055353075e-18
2.0 0.046669047558312145 -0.04666904755831214
2.0 7.225416114969383e-18 -0.059
2.0 -0.050911688245431415 -0.05091168824543143
2.0 -0.113 -2.0757763245547637e-17
2.0 -0.49356053326821026 0.49356053326821003
2.5 0.0 1.614
2.5 0.5381082604829627 0.5381082604829627
2.5 0.124 7.59281015471359e-18
2.5 0.05232590180780452 -0.05232590180780451
2.5 7.715274834628325e-18 -0.063
2.5 -0.04525483399593904 -0.045254833995939055
2.5 -0.106 -1.9471884106442913e-17
2.5 -0.07848885271170679 0.07848885271170676
3.0 0.0 1.61
3.0 0.08980256121069154 0.08980256121069154
3.0 0.109 6.674325055353075e-18
3.0 0.04808326112068524 -0.04808326112068523
3.0 7.225416114969383e-18 -0.059
3.0 -0.05161879502661796 -0.05161879502661798
3.0 -0.107 -1.965558112631502e-17
3.0 -0.49214631970583717 0.49214631970583694
3.5 0.0 1.617
3.5 0.5374011537017762 0.5374011537017762
3.5 0.126 7.715274834628325e-18
3.5 0.053033008588991064 -0.05303300858899106
3.5 7.59281015471359e-18 -0.062
3.5 -0.04666904755831214 -0.04666904755831215
3.5 -0.108 -1.983927814618712e-17
3.5 -0.07636753236814715 0.07636753236814711
4.0 0.0 1.611
4.0 0.08414570696119916 0.08414570696119916
4.0 0.108 6.613092715395707e-18
4.0 0.04596194077712559 -0.045961940777125586
4.0 8.205133554287267e-18 -0.067
4.0 -0.04808326112068523 -0.04808326112068525
4.0 -0.109 -2.0022975166059224e-17
4.0 -0.4978031739553295 0.4978031739553293
4.5 0.0 1.616
4.5 0.5480077554195744 0.5480077554195744
4.5 0.121 7.409113134841487e-18
4.5 0.05232590180780452 -0.05232590180780451
4.5 7.715274834628325e-18 -0.063
4.5 -0.04666904755831214 -0.04666904755831215
4.5 -0.109 -2.0022975166059224e-17
4.5 -0.0756604255869606 0.07566042558696057
